ply
format ascii 1.0
element vertex 1254
property float x
property float y
property float z
property uchar red
property uchar green
property uchar blue
end_header
-40.6175 -10.4649 -28.0036  255 255 255
-47.6053 -11.0065 -19.8068  255 255 255
-20.7243 -27.8972 36.3255  255 255 255
-14.9251 -29.8927 39.5562  255 255 255
-69.4818 -5.42359 -33.2049  255 255 255
8.19663 -36.5253 39.8217  255 255 255
-32.777 -23.5308 20.328  255 255 255
-56.6279 -12.4159 -24.7303  255 255 255
-54.4959 -13.4124 -24.1803  255 255 255
-3.62057 -36.2115 40.4904  255 255 255
-48.895 -17.0426 -17.6738  255 255 255
-31.3381 -28.6516 22.9891  255 255 255
-13.6177 -36.1139 35.8875  255 255 255
-55.1994 -18.5124 -18.973  255 255 255
-1.93233 -40.1286 37.3351  255 255 255
-63.4652 -17.0198 -18.1419  255 255 255
-14.626 -38.4724 33.2499  255 255 255
-57.2225 -21.5159 -13.9051  255 255 255
-6.17437 -41.5371 35.6706  255 255 255
-73.6863 -18.1037 -18.1099  255 255 255
-14.7927 -39.613 32.8275  255 255 255
-70.1795 -19.4643 -16.2143  255 255 255
-56.483 -25.0703 -8.02438  255 255 255
-52.7471 -26.326 -8.49842  255 255 255
-63.7528 -23.873 -9.86206  255 255 255
-75.1066 -22.6709 -11.9666  255 255 255
-58.1899 -30.1005 -2.20942  255 255 255
-54.8734 -31.7703 -1.32082  255 255 255
-60.6623 -32.0246 -2.23794  255 255 255
7.62506 -56.9244 36.8942  255 255 255
-67.3556 -35.7809 4.53375  255 255 255
15.4753 -64.0625 49.1464  255 255 255
18.7476 -65.2577 43.0456  255 255 255
-1.60663 -62.0741 38.3797  255 255 255
2.07224 -63.1727 39.1765  255 255 255
7.87082 110.314 -54.2972  255 255 255
14.6462 109.11 -58.9258  255 255 255
56.9758 114.899 -72.6455  255 255 255
62.9594 74.3138 -14.9803  255 255 255
-14.423 99.339 -50.7692  255 255 255
-55.9223 90.3654 -35.726  255 255 255
28.8696 103.034 -68.7251  255 255 255
-61.3203 87.7286 -35.622  255 255 255
-56.0461 87.2228 -35.0666  255 255 255
-44.1044 89.2353 -41.2486  255 255 255
27.2032 100.382 -70.5341  255 255 255
36.8522 100.428 -74.4702  255 255 255
70.3578 43.0058 22.2781  255 255 255
-60.9661 83.603 -34.3027  255 255 255
-32.2433 88.215 -48.3776  255 255 255
69.3134 42.8003 19.6089  255 255 255
-61.9623 82.878 -35.7508  255 255 255
-66.4466 81.3028 -32.8915  255 255 255
-62.6112 82.5086 -37.5801  255 255 255
99.512 103.608 -98.9846  255 255 255
67.0274 39.3922 15.2386  255 255 255
62.3116 57.6017 -22.6464  255 255 255
-66.9249 76.0773 -38.9524  255 255 255
-19.6463 81.5678 -58.3119  255 255 255
-22.3716 77.5236 -58.5231  255 255 255
-67.8635 71.5996 -41.874  255 255 255
-80.5431 68.0239 -35.7778  255 255 255
69.6632 41.7295 -14.1816  255 255 255
-59.8689 69.4183 -45.5965  255 255 255
59.0577 16.9872 37.4636  255 255 255
-79.4742 67.2139 -37.748  255 255 255
62.7291 80.5536 -96.7419  255 255 255
5.84099 75.2107 -75.3032  255 255 255
72.2698 24.2152 16.4993  255 255 255
66.2101 77.2134 -99.3767  255 255 255
24.4211 72.9894 -85.4014  255 255 255
64.1221 26.1294 4.21076  255 255 255
73.2576 18.9895 16.1555  255 255 255
60.9174 26.4554 -5.37056  255 255 255
66.7773 18.2955 6.91665  255 255 255
70.2098 15.0511 12.6446  255 255 255
10.3529 63.2989 -82.7335  255 255 255
7.12649 62.6372 -82.1581  255 255 255
59.6821 20.4509 -5.95978  255 255 255
72.3681 10.7887 13.508  255 255 255
16.2338 60.5495 -88.7196  255 255 255
17.1786 58.8529 -88.6746  255 255 255
-2.07567 57.7178 -80.4994  255 255 255
16.2418 58.3804 -91.3877  255 255 255
66.234 22.539 -29.4861  255 255 255
-44.0769 52.131 -66.6094  255 255 255
-5.96893 11.1727 23.3944  255 255 255
-15.4194 52.7035 -81.0642  255 255 255
14.7767 8.3579 20.0252  255 255 255
-9.98245 0.110063 35.3211  255 255 255
72.413 -11.0115 28.9235  255 255 255
79.8711 -9.59949 18.5732  255 255 255
79.6572 -9.63472 18.8759  255 255 255
-10.6999 -2.02143 35.9477  255 255 255
-19.9232 1.80388 25.3017  255 255 255
-19.999 1.80828 25.3965  255 255 255
13.0955 -12.2806 37.8904  255 255 255
69.8716 -10.0511 -1.95547  255 255 255
-42.5943 32.3611 -77.1796  255 255 255
80.4343 -19.1529 12.5701  255 255 255
77.3727 -17.2427 8.82187  255 255 255
-18.4328 -6.86812 30.9568  255 255 255
-18.4847 -6.74404 31.0723  255 255 255
31.4706 -20.2107 34.1556  255 255 255
74.6433 -20.2151 3.19872  255 255 255
-31.3166 -2.67145 9.93297  255 255 255
-31.3166 -2.67145 9.93297  255 255 255
81.4752 -26.0456 15.0358  255 255 255
-35.9487 -3.66505 13.0303  255 255 255
23.9653 -26.2436 40.2838  255 255 255
-36.882 -11.7487 13.0534  255 255 255
-32.9839 -15.7912 25.848  255 255 255
-29.912 -17.9154 31.0342  255 255 255
-33.2055 -17.3178 26.9778  255 255 255
-30.7475 -20.7534 33.8748  255 255 255
8.42063 -31.8684 45.2467  255 255 255
-37.2173 -15.9954 16.7759  255 255 255
-22.4567 -24.5335 36.6247  255 255 255
-43.7441 -8.58409 -30.5465  255 255 255
-34.8276 -23.0539 14.2914  255 255 255
-48.9947 -13.3452 -23.5193  255 255 255
-30.9632 -26.4197 27.1527  255 255 255
-20.528 -31.5159 35.9018  255 255 255
-32.3448 -25.6616 16.464  255 255 255
46.5622 -45.2641 19.1117  255 255 255
-21.8744 -33.7579 30.977  255 255 255
0.797846 -41.3361 36.5185  255 255 255
-69.252 -23.743 -10.6261  255 255 255
-69.1662 -23.8126 -10.9805  255 255 255
-6.74095 -44.7378 33.3347  255 255 255
-69.2765 -29.5246 -4.26513  255 255 255
12.9911 -56.6895 36.0317  255 255 255
-65.1973 -37.2488 6.55045  255 255 255
3.63406 -60.1222 38.0452  255 255 255
10.8157 -70.4898 49.4207  255 255 255
-2.75193 -67.289 49.8468  255 255 255
1.65731 -68.7315 46.6582  255 255 255
-3.61749 105.631 -50.0822  255 255 255
35.1946 110.873 -65.7948  255 255 255
9.06953 104.882 -57.3867  255 255 255
57.3801 51.3432 19.2083  255 255 255
61.4698 73.3941 -19.1111  255 255 255
-42.3354 88.8516 -40.0262  255 255 255
61.1513 68.7202 -21.3064  255 255 255
-3.0475 94.3293 -59.4049  255 255 255
1.67538 92.9446 -61.4153  255 255 255
27.8129 95.7387 -72.3689  255 255 255
46.9545 95.4405 -81.8388  255 255 255
68.9358 50.9591 -8.8577  255 255 255
61.7786 41.4792 6.80932  255 255 255
-39.5562 76.6021 -47.4987  255 255 255
63.1051 38.0444 8.60429  255 255 255
64.1056 36.9969 9.93609  255 255 255
60.7675 34.5978 3.35774  255 255 255
34.5902 79.851 -85.46  255 255 255
73.602 21.234 17.199  255 255 255
61.8081 42.172 -27.0147  255 255 255
61.8081 42.172 -27.0147  255 255 255
28.8529 69.6911 -88.4874  255 255 255
56.7587 69.8892 -102.396  255 255 255
60.6185 23.0905 -4.70776  255 255 255
67.6618 28.7461 -27.0836  255 255 255
72.917 8.40179 13.8301  255 255 255
54.8654 59.6784 -107.175  255 255 255
66.4325 13.3281 2.78056  255 255 255
66.4325 13.3281 2.78056  255 255 255
-26.5456 53.9348 -71.397  255 255 255
26.2394 53.5946 -98.4234  255 255 255
23.0861 52.7297 -97.5363  255 255 255
-15.8405 9.35277 23.9725  255 255 255
-13.7247 47.2743 -81.053  255 255 255
-14.4583 46.6996 -78.5479  255 255 255
61.2409 6.93879 -10.3445  255 255 255
-13.7798 1.97459 31.6404  255 255 255
64.5118 0.94666 -6.67229  255 255 255
71.9628 -10.0089 21.7727  255 255 255
-23.1493 4.99973 6.43838  255 255 255
-21.2113 3.89607 8.30862  255 255 255
77.4534 -14.6446 10.4107  255 255 255
76.7686 -14.7117 11.0469  255 255 255
70.7576 -19.4292 14.2712  255 255 255
-22.031 -6.00081 26.3348  255 255 255
-21.1227 -7.05186 28.1367  255 255 255
31.6606 -21.1821 32.6537  255 255 255
70.8443 -28.3081 21.2612  255 255 255
75.0158 -26.9567 10.242  255 255 255
-33.7663 -15.6203 23.3813  255 255 255
-31.2936 -20.6966 28.9973  255 255 255
-31.8949 -19.7249 23.183  255 255 255
-6.08524 -34.1765 41.6348  255 255 255
15.2048 -38.1438 35.1275  255 255 255
-46.4678 -13.7926 -21.9051  255 255 255
9.78436 -39.4164 37.7658  255 255 255
-5.26173 -36.7853 40.8506  255 255 255
-31.9351 -26.8294 19.6476  255 255 255
-33.7634 -26.3139 12.5066  255 255 255
-62.05 -14.8785 -21.4709  255 255 255
-23.6755 -32.5852 29.2118  255 255 255
-9.84445 -38.6698 35.2812  255 255 255
-0.772106 -42.2788 35.6689  255 255 255
-20.4447 -39.7819 31.2241  255 255 255
-57.2668 -27.6243 -7.24813  255 255 255
-56.4249 -30.8342 -2.36575  255 255 255
20.4828 -55.8853 33.0409  255 255 255
5.02774 -53.3796 34.3649  255 255 255
10.1226 -61.3568 38.1194  255 255 255
10.1226 -61.3568 38.1194  255 255 255
64.2207 51.7235 12.4857  255 255 255
-7.06099 94.3349 -59.2235  255 255 255
32.1835 99.2667 -73.0653  255 255 255
29.6558 99.5986 -73.8247  255 255 255
7.60387 93.8681 -63.4308  255 255 255
31.4252 95.0232 -74.1169  255 255 255
31.3861 95.0075 -74.1275  255 255 255
67.5132 31.4556 30.6069  255 255 255
101.192 101.688 -106.612  255 255 255
-17.3469 82.1741 -59.7727  255 255 255
-23.161 79.5822 -57.4823  255 255 255
60.2516 51.3261 -28.4977  255 255 255
64.9437 83.8673 -96.712  255 255 255
-4.02683 74.2853 -70.179  255 255 255
71.0484 40.6915 -18.3124  255 255 255
72.872 38.9121 -17.813  255 255 255
25.8139 71.276 -87.6303  255 255 255
-23.2687 62.7183 -69.3162  255 255 255
64.5382 1.32815 30.1254  255 255 255
77.0652 4.03482 19.014  255 255 255
79.7963 -3.76694 24.6794  255 255 255
-10.3484 47.5611 -86.3917  255 255 255
74.2683 -3.26506 9.73433  255 255 255
3.79085 -6.87644 35.5348  255 255 255
92.055 -16.8675 11.0205  255 255 255
-20.2927 -6.04746 31.3623  255 255 255
-25.7665 -0.664234 13.8235  255 255 255
-3.42539 -14.9335 39.9503  255 255 255
78.4465 -23.3657 8.4234  255 255 255
78.608 -30.5272 6.25722  255 255 255
80.7268 -33.1239 9.69506  255 255 255
-35.1902 -13.0782 21.0997  255 255 255
-17.6213 -30.2398 39.8765  255 255 255
6.59986 -38.2372 38.2602  255 255 255
13.6757 -40.0955 35.2044  255 255 255
-6.62565 -43.2522 34.9741  255 255 255
-19.1918 -40.2195 31.5149  255 255 255
-19.1265 -40.2131 31.4518  255 255 255
-19.5951 -43.1272 30.2174  255 255 255
25.5536 -55.449 32.4895  255 255 255
21.8469 -56.008 34.6068  255 255 255
-47.9816 -36.6148 6.76413  255 255 255
-40.174 -47.7697 21.2997  255 255 255
-7.65452 99.7617 -53.2979  255 255 255
63.5424 70.611 -16.0415  255 255 255
67.0821 50.1326 -1.47945  255 255 255
30.9122 83.9193 -81.3733  255 255 255
30.6646 83.7089 -80.7159  255 255 255
67.8928 81.3566 -100.804  255 255 255
-80.8292 65.2093 -36.7979  255 255 255
31.3839 76.3177 -87.0768  255 255 255
34.5159 74.1532 -88.803  255 255 255
-3.98937 60.3868 -77.8512  255 255 255
-8.80455 10.9807 25.1434  255 255 255
-15.2201 49.4128 -79.6081  255 255 255
-3.28272 48.4559 -87.9803  255 255 255
-15.9114 -3.65007 33.1084  255 255 255
74.9275 -11.3649 6.09217  255 255 255
-29.1978 -19.2386 32.375  255 255 255
-18.2942 -25.3728 41.2196  255 255 255
-30.7637 -26.6551 22.2423  255 255 255
-19.7058 -32.5278 35.2083  255 255 255
-16.7 -35.1828 34.8766  255 255 255
-25.1433 -33.2374 28.603  255 255 255
1.67968 -50.905 35.4371  255 255 255
17.7931 109.159 -59.1774  255 255 255
-1.98748 104.222 -51.0307  255 255 255
-7.18892 102.65 -51.293  255 255 255
21.7866 93.0178 -68.9939  255 255 255
24.1487 95.5751 -73.9624  255 255 255
69.4489 72.1318 -103.074  255 255 255
66.623 33.5657 -23.081  255 255 255
8.23154 56.6619 -88.1708  255 255 255
-5.21007 1.60164 35.6219  255 255 255
-31.3834 -24.8713 28.5989  255 255 255
17.6723 -51.7329 31.3482  255 255 255
17.6723 -51.7329 31.3482  255 255 255
23.6279 108.463 -62.9615  255 255 255
4.65471 103.998 -55.9892  255 255 255
4.72109 103.94 -56.0026  255 255 255
-33.6303 92.0003 -41.7514  255 255 255
26.4813 104.306 -68.4567  255 255 255
65.1455 57.1035 3.27465  255 255 255
3.42838 89.3538 -63.4477  255 255 255
3.28629 84.2458 -68.0494  255 255 255
3.16582 84.1477 -67.6503  255 255 255
-32.2544 -17.298 25.5131  255 255 255
0.674008 -37.3478 39.289  255 255 255
-3.63166 -39.7481 37.6813  255 255 255
10.3796 -48.5775 38.6858  255 255 255
5.13394 99.9318 -61.1654  255 255 255
65.8433 68.1719 -14.6866  255 255 255
66.1672 56.1287 -16.5502  255 255 255
24.0285 83.1056 -81.6091  255 255 255
-20.4836 73.207 -62.6095  255 255 255
45.8442 66.2459 -99.3511  255 255 255
58.8985 65.2094 -104.178  255 255 255
3.64842 56.3513 -90.7787  255 255 255
1.80571 49.6452 -89.8039  255 255 255
-28.5785 47.0715 -77.6673  255 255 255
-22.0611 -6.88879 26.7312  255 255 255
-27.7942 -6.66496 22.2338  255 255 255
-32.6084 -13.8383 26.0394  255 255 255
10.7618 -45.4473 37.1936  255 255 255
60.8455 89.7778 -92.2899  255 255 255
-23.623 58.539 -69.8533  255 255 255
-9.4057 49.5603 -83.7547  255 255 255
-9.32382 49.7496 -84.2542  255 255 255
-13.4687 61.6638 -75.1849  255 255 255
15.8346 83.287 -80.5072  255 255 255
-19.1698 138.442 -49.8548  255 255 255
22.0567 148.445 -60.9838  255 255 255
20.887 147.022 -61.2639  255 255 255
22.4286 147.619 -61.6401  255 255 255
20.8513 147.121 -62.3195  255 255 255
21.0322 144.571 -63.2372  255 255 255
104.01 203.53 -158.177  255 255 255
23.9348 133.717 -67.343  255 255 255
-24.5763 110.045 -46.5704  255 255 255
47.3705 114.883 -67.1704  255 255 255
34.8162 110.632 -64.7423  255 255 255
15.2049 107.277 -58.6506  255 255 255
-2.62184 100.507 -53.6174  255 255 255
57.5011 74.3565 -15.259  255 255 255
-8.06282 99.4357 -51.5042  255 255 255
66.5153 69.6446 -8.6267  255 255 255
-0.815858 98.5346 -55.708  255 255 255
57.3479 50.1012 20.6377  255 255 255
13.3669 101.132 -62.4354  255 255 255
69.6489 64.787 -6.20541  255 255 255
61.0475 47.084 24.3587  255 255 255
60.2456 73.0421 -21.3147  255 255 255
97.7207 110.316 -90.8702  255 255 255
50.2391 106.404 -81.8468  255 255 255
58.3296 48.2413 14.8864  255 255 255
-12.3462 92.2507 -54.2023  255 255 255
55.3436 102.835 -79.8822  255 255 255
70.6282 42.2263 22.7524  255 255 255
-58.9196 83.6911 -34.5547  255 255 255
45.5971 100.581 -77.0107  255 255 255
60.6962 68.3322 -22.4374  255 255 255
43.8031 100.681 -77.2078  255 255 255
-57.3072 82.8002 -35.7956  255 255 255
63.1645 64.4259 -19.2863  255 255 255
66.3723 43.7086 16.0384  255 255 255
50.0825 99.2678 -80.2164  255 255 255
31.9067 96.2628 -73.8552  255 255 255
-29.9378 85.9436 -48.4282  255 255 255
68.0502 58.1766 -12.317  255 255 255
68.0502 58.1766 -12.317  255 255 255
-3.0114 88.6109 -60.9544  255 255 255
63.4148 43.7853 10.8254  255 255 255
65.6553 41.934 13.6714  255 255 255
37.4542 94.5351 -77.7741  255 255 255
61.7576 60.3923 -22.1112  255 255 255
68.2007 37.0926 17.2225  255 255 255
-53.3487 78.4097 -40.7095  255 255 255
27.8655 90.1919 -76.244  255 255 255
38.2176 91.2405 -80.1938  255 255 255
31.6022 89.7203 -77.6782  255 255 255
65.5434 54.2085 -18.8856  255 255 255
-45.613 77.3202 -46.7249  255 255 255
-45.7677 77.1521 -45.8605  255 255 255
67.2023 90.1019 -92.8193  255 255 255
67.1644 32.599 15.4069  255 255 255
-30.3304 77.3737 -54.1937  255 255 255
68.23 25.2788 26.5173  255 255 255
22.1166 83.2567 -77.8895  255 255 255
69.4648 45.398 -13.606  255 255 255
71.2461 24.9425 24.0046  255 255 255
3.8264 80.4567 -71.8809  255 255 255
-25.3707 75.6866 -57.7639  255 255 255
68.4969 47.0629 -19.6646  255 255 255
93.3378 88.2976 -106.903  255 255 255
72.4408 84.1056 -99.4216  255 255 255
48.0019 82.3734 -91.4687  255 255 255
69.7289 26.6353 14.2999  255 255 255
12.4726 76.8513 -76.7979  255 255 255
67.8627 27.6689 10.5668  255 255 255
64.4846 26.513 13.7945  255 255 255
70.2648 40.0001 -16.1869  255 255 255
61.2029 47.8156 -31.1094  255 255 255
49.293 78.7057 -94.6093  255 255 255
70.1222 22.0607 14.2355  255 255 255
63.8383 25.9715 2.67918  255 255 255
63.912 39.8025 -29.1249  255 255 255
64.7279 38.6372 -27.5528  255 255 255
72.5855 15.2252 14.2034  255 255 255
65.1725 34.1021 -27.6182  255 255 255
60.6335 38.0798 -35.3768  255 255 255
65.4334 39.999 -41.665  255 255 255
66.0441 19.0076 2.94838  255 255 255
50.6718 67.8737 -102.755  255 255 255
62.949 20.1821 -2.72829  255 255 255
27.4997 64.858 -93.2404  255 255 255
71.2834 29.1584 -27.2965  255 255 255
-22.6389 60.4656 -70.012  255 255 255
61.4911 33.4841 -35.4666  255 255 255
66.0262 16.0974 1.78223  255 255 255
65.7332 16.3386 1.20107  255 255 255
65.3484 29.7397 -29.9034  255 255 255
64.9688 16.3356 -0.222832  255 255 255
64.7794 16.3019 -0.170085  255 255 255
71.6843 9.6897 12.2699  255 255 255
70.5049 9.86336 8.12432  255 255 255
39.385 60.5465 -100.751  255 255 255
76.4893 4.54645 16.4097  255 255 255
32.869 59.9667 -99.945  255 255 255
67.0395 24.3893 -29.2254  255 255 255
75.2354 2.89025 14.1597  255 255 255
-8.57788 55.3982 -81.3459  255 255 255
76.8508 1.17814 15.9012  255 255 255
77.8257 -1.08802 21.2988  255 255 255
75.5684 0.678638 17.7358  255 255 255
64.7529 10.3478 -2.27432  255 255 255
64.7949 10.2517 -2.92696  255 255 255
74.9261 1.82877 13.1709  255 255 255
66.8251 7.95689 0.96208  255 255 255
71.9805 2.14105 10.3212  255 255 255
64.9161 7.80199 -3.74956  255 255 255
74.4246 -0.892152 12.5856  255 255 255
71.3198 1.75753 6.48456  255 255 255
71.3914 1.48641 6.6872  255 255 255
68.709 3.43129 1.86811  255 255 255
-7.3922 50.3085 -85.3418  255 255 255
-7.3922 50.3085 -85.3418  255 255 255
83.2778 -11.7285 30.4902  255 255 255
76.0017 -5.2853 16.008  255 255 255
11.0578 48.1836 -95.0732  255 255 255
-4.99145 47.9156 -87.0462  255 255 255
74.1793 -3.32813 10.0468  255 255 255
68.2628 1.80493 -0.44972  255 255 255
68.1651 1.79941 -0.370147  255 255 255
71.8088 -1.5193 5.55878  255 255 255
84.5077 -14.5187 31.8386  255 255 255
5.05621 46.0594 -92.1757  255 255 255
70.6517 -2.18292 3.54965  255 255 255
-12.3504 1.36522 31.9979  255 255 255
-13.7271 2.4771 29.0728  255 255 255
72.5013 -4.43645 6.3138  255 255 255
70.372 -2.97561 2.759  255 255 255
74.7244 -6.80935 9.25376  255 255 255
84.5032 -16.7302 31.175  255 255 255
75.9205 -7.86742 11.4566  255 255 255
74.9349 -7.27821 9.45871  255 255 255
-8.5745 -2.35568 36.4886  255 255 255
73.8776 -6.87608 7.57661  255 255 255
73.4547 -7.09589 7.62528  255 255 255
0.539589 -5.98874 39.4583  255 255 255
71.8319 -6.13701 3.98128  255 255 255
9.5368 -7.6262 38.2332  255 255 255
85.501 -19.4933 32.4648  255 255 255
76.5057 -10.2268 10.4944  255 255 255
-99.0215 -20.0076 125.009  255 255 255
71.3577 -7.17504 2.68909  255 255 255
-20.0324 1.34128 24.3682  255 255 255
-17.9409 -0.49143 29.0561  255 255 255
72.4122 -8.74296 4.60941  255 255 255
75.8676 -11.8705 11.1932  255 255 255
71.4482 -8.4925 2.29151  255 255 255
1.63767 -9.54925 40.1257  255 255 255
70.5361 -8.79861 0.808646  255 255 255
-19.9179 7.04707 4.31736  255 255 255
80.9145 -22.6119 33.9642  255 255 255
70.4541 -8.82786 -0.0475416  255 255 255
-20.2604 -1.10063 25.8547  255 255 255
11.3822 -11.1596 37.101  255 255 255
72.2931 -11.3295 3.27833  255 255 255
73.8604 -12.7126 5.52929  255 255 255
74.21 -13.2519 6.22717  255 255 255
71.1556 -10.791 0.31127  255 255 255
72.9201 -13.7335 3.74571  255 255 255
-23.0025 -0.455782 18.9837  255 255 255
75.281 -15.8052 6.21453  255 255 255
75.2278 -15.7088 6.27595  255 255 255
-21.3525 -3.65271 26.0324  255 255 255
23.9459 -14.4434 31.098  255 255 255
73.0056 -14.8585 2.76118  255 255 255
73.4689 -15.2147 3.03998  255 255 255
-17.5724 -7.1876 31.56  255 255 255
-25.4826 -0.129951 13.5364  255 255 255
71.8177 -15.7509 0.620171  255 255 255
-3.53809 -14.2656 39.687  255 255 255
-12.313 -11.5466 36.57  255 255 255
31.3959 -18.556 30.7025  255 255 255
-23.265 -5.17951 22.7594  255 255 255
6.85665 -16.6025 38.9142  255 255 255
-21.2838 -7.5946 27.2877  255 255 255
73.9202 -20.06 2.98059  255 255 255
77.4346 -22.7601 7.86307  255 255 255
26.975 -20.4302 33.4304  255 255 255
28.533 -21.2048 34.6764  255 255 255
-7.2138 -15.9731 37.4592  255 255 255
-14.7322 -13.712 35.0644  255 255 255
79.2776 -26.6945 8.56204  255 255 255
70.9582 -20.5575 -4.70169  255 255 255
-10.2163 -16.2742 36.9976  255 255 255
-98.1504 -23.8917 121.134  255 255 255
-19.8486 -15.158 33.5436  255 255 255
15.7598 -25.16 40.2288  255 255 255
-17.2579 -17.845 37.2997  255 255 255
74.377 -27.9365 -0.213828  255 255 255
74.6819 -28.0498 -0.455375  255 255 255
-20.2079 -17.1373 34.9066  255 255 255
-22.9702 -16.0049 32.1318  255 255 255
2.34377 -24.5107 41.1931  255 255 255
-99.0936 -24.5316 120.795  255 255 255
84.7959 -37.4948 21.2967  255 255 255
-35.7141 -7.44673 9.86062  255 255 255
-9.21407 -22.091 40.2687  255 255 255
-16.1513 -20.2768 37.7621  255 255 255
-1.08266 -24.8841 40.8409  255 255 255
-32.2395 -13.6761 25.8292  255 255 255
-8.49716 -23.4532 39.8519  255 255 255
-8.14254 -23.7479 40.2377  255 255 255
-41.283 7.51328 -47.4518  255 255 255
-11.008 -23.0783 39.0805  255 255 255
5.00157 -28.2558 43.9386  255 255 255
-30.6869 -16.1055 28.6772  255 255 255
81.6162 -38.3044 12.5606  255 255 255
-34.1648 -14.3269 22.7896  255 255 255
-29.876 -18.9813 33.2549  255 255 255
-4.64031 -27.7467 43.5662  255 255 255
-29.2775 -19.1423 33.0299  255 255 255
-29.2872 -19.3645 33.3712  255 255 255
-29.394 -19.4489 33.5361  255 255 255
7.35871 -30.8458 43.8454  255 255 255
-17.1734 -24.4223 39.4483  255 255 255
-18.9102 -25.3111 40.7536  255 255 255
-18.49 -26.0474 41.3094  255 255 255
-13.7753 -28.9218 41.4777  255 255 255
-35.7137 -18.3058 19.9349  255 255 255
-16.4482 -28.3018 40.1922  255 255 255
-48.1714 -2.63171 -35.0951  255 255 255
59.8302 -42.4758 15.6312  255 255 255
-0.656611 -33.9079 41.6583  255 255 255
7.88519 -35.966 40.168  255 255 255
-50.7982 -4.53083 -32.8854  255 255 255
-48.0731 -5.78223 -30.9999  255 255 255
7.09714 -36.3037 39.7895  255 255 255
-32.683 -21.9415 21.7175  255 255 255
-23.4398 -27.8486 34.0574  255 255 255
-12.5279 -32.8774 39.4721  255 255 255
-13.5321 -32.4589 38.52  255 255 255
3.78867 -38.0118 38.9027  255 255 255
-10.7911 -34.8839 38.3464  255 255 255
-22.6333 -31.6341 32.0566  255 255 255
-26.0032 -30.3731 28.4874  255 255 255
-25.74 -30.7625 28.5289  255 255 255
-8.61508 -37.584 37.5957  255 255 255
-26.615 -31.8789 26.7838  255 255 255
-10.498 -38.2143 36.3906  255 255 255
-9.80905 210.186 -131.017  255 255 255
23.4837 150.878 -63.9668  255 255 255
20.8296 147.93 -61.6169  255 255 255
-21.2844 134.119 -50.4402  255 255 255
23.5842 146.073 -68.2288  255 255 255
-15.9066 133.053 -54.6085  255 255 255
-19.8135 131.24 -54.8286  255 255 255
4.71631 129.125 -52.1095  255 255 255
22.077 140.086 -69.4218  255 255 255
-19.9383 128.657 -53.5265  255 255 255
96.8325 202.879 -159.642  255 255 255
-11.7618 124.998 -52.1105  255 255 255
-2.5767 125.499 -54.6153  255 255 255
-11.3426 121.988 -51.1287  255 255 255
-9.75541 116.43 -48.3908  255 255 255
-8.072 116.939 -49.0313  255 255 255
23.1096 124.702 -61.3623  255 255 255
-10.9332 117.099 -50.0686  255 255 255
-7.68717 112.681 -47.3555  255 255 255
4.73791 109.142 -49.534  255 255 255
17.4224 111.409 -54.7594  255 255 255
25.9272 111.591 -59.5305  255 255 255
6.6564 106.793 -53.184  255 255 255
-4.78057 101.246 -49.7509  255 255 255
58.4026 112.184 -75.6564  255 255 255
46.8186 109.639 -71.4997  255 255 255
60.6915 74.0164 -14.0105  255 255 255
-39.6228 92.722 -39.2571  255 255 255
55.9322 52.5998 19.1006  255 255 255
-45.0727 91.2051 -37.4488  255 255 255
66.7633 67.141 -6.82511  255 255 255
67.3027 67.4701 -8.0434  255 255 255
57.9628 49.8733 20.9591  255 255 255
26.2083 103.363 -66.0409  255 255 255
-49.0128 89.6095 -36.5831  255 255 255
24.6465 103.279 -66.5589  255 255 255
58.5967 107.863 -77.9423  255 255 255
68.3813 108.096 -80.686  255 255 255
21.2519 101.641 -65.2608  255 255 255
42.4755 104.804 -73.321  255 255 255
-23.1621 93.0559 -47.4475  255 255 255
45.4612 101.875 -76.174  255 255 255
49.9473 102.079 -78.4521  255 255 255
37.0148 99.9873 -73.6787  255 255 255
59.7598 69.0529 -22.2219  255 255 255
18.1925 97.2337 -66.9968  255 255 255
66.5597 45.1098 17.0195  255 255 255
11.0259 94.8592 -64.4361  255 255 255
11.1475 95.023 -64.7116  255 255 255
50.664 99.4489 -80.0234  255 255 255
64.9125 101.079 -85.2948  255 255 255
50.639 98.5799 -81.4935  255 255 255
-24.8071 86.0454 -51.7445  255 255 255
-18.4324 87.2411 -55.4473  255 255 255
22.6397 91.1528 -72.689  255 255 255
19.6126 89.7398 -72.1941  255 255 255
-19.5669 82.919 -56.1661  255 255 255
67.9724 51.5779 -11.6446  255 255 255
-45.4897 78.683 -45.1212  255 255 255
-19.3855 82.3936 -57.3764  255 255 255
-51.4165 77.2925 -44.148  255 255 255
-25.0764 80.838 -55.1858  255 255 255
61.1782 40.5501 4.5176  255 255 255
-31.8195 77.8277 -52.2543  255 255 255
-24.7414 78.6227 -56.5458  255 255 255
58.4539 54.4445 -32.6734  255 255 255
59.5126 84.1173 -94.5916  255 255 255
69.3556 42.4576 -16.4771  255 255 255
38.3475 78.5199 -88.7794  255 255 255
71.2504 20.7066 21.431  255 255 255
71.2504 20.7066 21.431  255 255 255
38.4431 77.9007 -89.6181  255 255 255
-0.757952 72.3862 -73.7366  255 255 255
68.9443 37.019 -29.6116  255 255 255
68.9443 37.019 -29.6116  255 255 255
68.9443 37.019 -29.6116  255 255 255
72.6365 13.6714 17.1863  255 255 255
53.2998 69.2068 -101.315  255 255 255
78.2669 66.6114 -109.066  255 255 255
77.3348 65.5425 -110.537  255 255 255
77.3348 65.5425 -110.537  255 255 255
-35.6491 59.4797 -63.021  255 255 255
74.4496 5.6482 19.1398  255 255 255
78.0293 1.26231 19.4182  255 255 255
65.7893 11.1256 0.422477  255 255 255
7.45825 2.09046 34.6393  255 255 255
6.65514 1.42494 34.4995  255 255 255
-11.0163 6.00986 28.4583  255 255 255
-11.6512 5.79689 28.5422  255 255 255
-9.72339 49.9374 -85.3563  255 255 255
0.360139 1.31621 34.5605  255 255 255
-10.5624 49.8709 -85.3241  255 255 255
-4.86353 2.63534 33.1207  255 255 255
2.55609 -1.9675 38.1177  255 255 255
68.9419 -0.298544 1.03106  255 255 255
70.7044 -2.34703 4.30597  255 255 255
84.3519 -16.2025 31.0854  255 255 255
75.083 -8.02078 11.1689  255 255 255
9.59639 -6.19964 38.1379  255 255 255
76.2398 -9.74226 12.9779  255 255 255
64.2754 -1.15748 -9.33478  255 255 255
-10.8666 -6.05848 36.5244  255 255 255
74.2155 -11.9822 7.55407  255 255 255
74.4325 -12.8037 7.23098  255 255 255
86.0043 -23.8277 30.8865  255 255 255
-19.5722 -2.92937 28.0886  255 255 255
75.495 -14.9773 8.93377  255 255 255
-12.1882 -7.62461 36.2628  255 255 255
-17.0547 -5.38025 31.7044  255 255 255
-6.14682 -10.1594 39.3287  255 255 255
82.2869 -21.5565 20.5872  255 255 255
82.2869 -21.5565 20.5872  255 255 255
-4.2455 -10.9001 39.6934  255 255 255
-16.0298 -7.22384 33.3022  255 255 255
-23.2019 0.987565 12.8481  255 255 255
11.0504 -14.5289 38.2338  255 255 255
70.9678 -13.5671 -1.3748  255 255 255
84.5513 -25.6477 24.1521  255 255 255
-23.1047 -4.38925 22.7925  255 255 255
-22.5284 -5.19978 24.8305  255 255 255
-22.9764 -4.69864 23.3207  255 255 255
73.8056 -18.0541 2.48932  255 255 255
71.8669 -17.0982 -0.959151  255 255 255
-11.6972 -12.773 36.957  255 255 255
-97.4619 -22.6274 122.105  255 255 255
-2.69121 -16.6475 39.3131  255 255 255
24.307 -22.3819 36.2212  255 255 255
7.08216 -20.2282 39.7454  255 255 255
-4.65297 -18.0795 37.6629  255 255 255
-97.8877 -23.5717 121.191  255 255 255
-98.219 -23.636 121.401  255 255 255
-98.3765 -23.6829 121.41  255 255 255
-99.3571 -23.8586 121.858  255 255 255
-8.21069 -19.417 39.1563  255 255 255
6.67892 -24.6064 41.1757  255 255 255
-17.317 -18.1325 37.1517  255 255 255
-34.949 -10.4438 21.4058  255 255 255
-40.1319 10.4096 -50.5317  255 255 255
10.1686 -27.3568 43.0399  255 255 255
-30.063 -13.304 25.2639  255 255 255
-10.0937 -22.7308 39.7402  255 255 255
-19.3239 -19.854 34.4212  255 255 255
-27.6169 -17.6072 30.7012  255 255 255
-29.1923 -17.3825 30.9632  255 255 255
-0.769375 -28.0311 43.8683  255 255 255
-21.8379 -21.3105 35.379  255 255 255
-32.2549 -16.7658 26.0914  255 255 255
-7.81572 -27.3107 43.1012  255 255 255
4.08142 -30.8501 43.9727  255 255 255
-9.41208 -27.4418 43.3622  255 255 255
-9.89758 -27.7836 43.7259  255 255 255
-0.295692 -30.812 44.0182  255 255 255
-10.4289 -29.7461 42.751  255 255 255
-11.945 -29.781 41.7115  255 255 255
-13.2065 -30.6755 40.1516  255 255 255
-16.3885 -30.0294 38.7998  255 255 255
-13.2491 -32.3507 38.9668  255 255 255
-16.0524 -31.8274 38.0271  255 255 255
-16.0524 -31.8274 38.0271  255 255 255
-6.09225 -35.9665 39.8752  255 255 255
-47.304 -12.8802 -22.5561  255 255 255
-46.2298 -11.2845 -31.2679  255 255 255
-13.3852 -35.8225 36.4823  255 255 255
-15.0996 -35.8747 35.5675  255 255 255
-7.11664 -39.7375 36.9481  255 255 255
-49.4995 -15.2158 -32.0146  255 255 255
-8.46683 204.021 -135.202  255 255 255
-20.998 137.89 -48.5695  255 255 255
20.8867 149.086 -61.4052  255 255 255
21.4477 146.938 -62.9554  255 255 255
23.9636 141.094 -68.1985  255 255 255
28.5896 126.892 -64.5893  255 255 255
-12.5332 117.361 -51.3715  255 255 255
-8.32299 114.02 -47.5741  255 255 255
-49.9777 104.667 -36.3792  255 255 255
-5.15183 108.85 -46.3812  255 255 255
-51.4809 103.148 -36.2197  255 255 255
13.3841 110.96 -53.0703  255 255 255
14.9919 110.632 -55.2074  255 255 255
45.1211 114.339 -66.9794  255 255 255
41.1016 115.136 -68.5852  255 255 255
73.0826 115.228 -79.2527  255 255 255
51.1902 110.689 -73.0965  255 255 255
91.3865 117.052 -88.7023  255 255 255
-48.4324 91.1943 -35.6772  255 255 255
15.2397 102.005 -60.5348  255 255 255
23.2022 102.493 -65.5376  255 255 255
63.6925 52.1424 15.4723  255 255 255
61.6844 43.8354 27.079  255 255 255
-63.0969 85.1657 -32.0833  255 255 255
17.1777 98.2809 -66.0066  255 255 255
-35.5228 88.0265 -45.1471  255 255 255
76.4844 106.222 -90.0537  255 255 255
11.9328 95.943 -64.8425  255 255 255
46.1686 100.06 -77.5014  255 255 255
-11.9916 90.511 -55.8633  255 255 255
66.9277 59.3194 -14.2686  255 255 255
63.7076 61.5652 -18.9504  255 255 255
74.9994 99.2616 -89.7566  255 255 255
64.7059 97.455 -87.0954  255 255 255
12.4791 90.5579 -68.8553  255 255 255
-55.5675 78.812 -39.4895  255 255 255
48.0073 92.9401 -84.3875  255 255 255
67.7102 94.0558 -91.3709  255 255 255
64.1093 56.0066 -19.7161  255 255 255
64.1661 55.2534 -21.3663  255 255 255
64.6735 92.1475 -90.7336  255 255 255
26.3078 87.0024 -76.9582  255 255 255
70.0402 30.8337 21.5515  255 255 255
-29.8324 78.3626 -54.562  255 255 255
-21.6871 79.5901 -58.205  255 255 255
50.0859 86.9448 -88.4574  255 255 255
61.7543 55.9459 -33.8225  255 255 255
55.9818 85.2851 -92.2498  255 255 255
66.6011 85.7897 -95.6359  255 255 255
4.77889 78.8124 -72.3405  255 255 255
61.5666 84.3243 -94.4718  255 255 255
71.9345 23.583 22.889  255 255 255
92.1133 86.5158 -106.195  255 255 255
43.7497 81.9722 -89.0558  255 255 255
67.7733 21.3888 25.8926  255 255 255
66.9155 82.6346 -99.6636  255 255 255
85.8562 82.4757 -106.085  255 255 255
73.8765 80.3153 -102.909  255 255 255
25.4575 78.638 -88.5002  255 255 255
25.4575 78.638 -88.5002  255 255 255
68.2055 34.9258 -21.3057  255 255 255
68.5949 34.3058 -20.4411  255 255 255
-43.1733 63.7059 -54.7474  255 255 255
13.8455 65.8543 -78.26  255 255 255
31.2822 69.3769 -99.8269  255 255 255
60.0206 22.3725 -6.58989  255 255 255
67.6709 28.2297 -25.3395  255 255 255
64.9267 68.7078 -118.249  255 255 255
31.5902 61.186 -96.7512  255 255 255
81.6162 -3.17912 30.3018  255 255 255
-30.5864 55.0871 -69.4393  255 255 255
72.6001 5.81226 10.8198  255 255 255
77.6469 1.01253 17.7064  255 255 255
-3.68278 11.5735 20.9994  255 255 255
75.3037 -0.0707954 15.8386  255 255 255
7.73182 2.35482 33.3089  255 255 255
11.5537 52.1344 -93.8795  255 255 255
5.43079 -1.18073 37.159  255 255 255
62.9708 6.54709 -7.55264  255 255 255
-16.0094 46.9449 -79.7717  255 255 255
84.1068 -13.6577 31.3885  255 255 255
27.4804 40.1072 -91.6769  255 255 255
-18.5215 2.01694 26.6784  255 255 255
75.3802 -9.74448 11.4728  255 255 255
74.3702 -9.40841 8.83681  255 255 255
-18.5074 0.970198 26.7952  255 255 255
-19.6685 -1.74049 27.1407  255 255 255
8.49787 -12.0367 39.1248  255 255 255
-22.3012 4.74604 7.65611  255 255 255
-20.7524 -2.77056 26.4452  255 255 255
-23.0899 7.51924 -2.7901  255 255 255
0.715805 -11.8312 40.1197  255 255 255
25.5497 -13.0767 28.9686  255 255 255
-24.4314 3.16889 9.63743  255 255 255
-22.9233 -1.57648 22.3807  255 255 255
71.1708 -12.4292 -0.785214  255 255 255
85.0747 -26.4389 25.6088  255 255 255
84.643 -26.6739 26.4426  255 255 255
-17.2058 -8.31281 32.7993  255 255 255
85.546 -28.3073 25.7334  255 255 255
-99.233 -22.5721 123.446  255 255 255
-22.5983 -7.21644 25.8509  255 255 255
-97.4747 -22.7589 121.798  255 255 255
6.23873 -18.1088 38.7808  255 255 255
-98.6579 -22.7412 122.212  255 255 255
-20.683 -9.74617 28.3766  255 255 255
-17.3701 -11.9968 32.9092  255 255 255
14.459 -20.9139 39.1147  255 255 255
84.4765 -31.803 23.7309  255 255 255
-20.9019 13.7314 -55.0626  255 255 255
-98.6998 -23.5152 121.913  255 255 255
-99.0309 -23.544 122.108  255 255 255
-18.5783 -14.8602 33.7745  255 255 255
-19.0019 -15.4615 34.1115  255 255 255
16.2106 -26.0083 40.5614  255 255 255
21.4291 -27.5246 40.9376  255 255 255
-36.1764 -11.6707 23.7253  255 255 255
-16.3683 -20.1868 37.1964  255 255 255
82.6641 -37.2825 16.0838  255 255 255
8.52366 -29.357 45.212  255 255 255
81.9795 -37.7291 14.0197  255 255 255
7.30139 -29.7039 44.7871  255 255 255
-0.312276 -27.6926 43.466  255 255 255
-31.2615 -17.6735 30.9631  255 255 255
-33.8774 -15.262 23.9754  255 255 255
-30.8251 -18.5713 32.4101  255 255 255
2.92225 -29.8027 44.2235  255 255 255
-0.489929 -29.2882 44.7722  255 255 255
-15.456 -25.4096 40.2895  255 255 255
-22.1225 -25.1029 38.0812  255 255 255
-21.9137 -25.0419 37.744  255 255 255
66.2536 -41.5935 14.6944  255 255 255
-0.92596 -32.5938 42.8274  255 255 255
-28.8108 -23.6132 31.0763  255 255 255
-22.9332 -26.2684 34.9438  255 255 255
-33.043 -20.7411 21.274  255 255 255
-24.417 -26.2812 34.4825  255 255 255
-36.551 -19.0001 14.797  255 255 255
-19.8789 -29.5667 39.9652  255 255 255
-50.2018 -6.41857 -30.4927  255 255 255
57.0493 -47.2989 20.5302  255 255 255
-24.2178 -29.7968 31.1983  255 255 255
-26.2389 -30.0869 29.3336  255 255 255
-34.7928 -26.9925 24.1422  255 255 255
-26.4898 -30.6021 28.4695  255 255 255
-32.693 -27.3413 20.1771  255 255 255
-48.9682 -14.6937 -20.3242  255 255 255
-34.7939 -27.7386 23.1641  255 255 255
-50.706 -16.0379 -19.0062  255 255 255
-16.8124 -36.4829 35.675  255 255 255
22.2889 148.965 -61.1716  255 255 255
-11.6585 116.39 -51.8529  255 255 255
-11.0394 115.54 -51.7988  255 255 255
-54.7022 101.938 -35.3392  255 255 255
41.0121 113.201 -64.8825  255 255 255
34.6677 107.932 -68.0008  255 255 255
48.9039 110.518 -72.6567  255 255 255
61.7881 74.7409 -15.709  255 255 255
-59.8305 88.1218 -31.2885  255 255 255
63.6092 70.2946 -12.8706  255 255 255
69.003 46.3774 23.4096  255 255 255
-48.3986 87.2235 -37.324  255 255 255
17.0434 98.8997 -64.0448  255 255 255
64.0449 103.66 -82.9136  255 255 255
38.2822 100.276 -74.3275  255 255 255
61.3125 67.0597 -19.9433  255 255 255
-46.736 83.5852 -37.4681  255 255 255
64.039 63.5168 -17.0873  255 255 255
33.8401 97.0694 -74.3488  255 255 255
65.5939 100.284 -86.247  255 255 255
91.6843 101.557 -97.2321  255 255 255
65.6497 57.8816 -15.2972  255 255 255
16.09 90.476 -70.354  255 255 255
69.1229 97.3458 -90.4577  255 255 255
60.3246 61.6925 -26.0425  255 255 255
-17.4382 83.7932 -58.2561  255 255 255
64.9456 94.0438 -90.2649  255 255 255
67.4801 52.3251 -14.5485  255 255 255
68.6093 51.3619 -16.8526  255 255 255
90.4692 90.5336 -103.138  255 255 255
66.4704 86.9006 -94.4893  255 255 255
76.2165 87.8037 -100.974  255 255 255
69.6747 86.0973 -99.0926  255 255 255
77.7026 85.0566 -99.6816  255 255 255
36.1081 81.1214 -85.659  255 255 255
62.515 82.5206 -96.2359  255 255 255
59.6102 50.7753 -32.7657  255 255 255
51.4048 80.4068 -93.5799  255 255 255
68.1656 19.8043 25.2575  255 255 255
17.51 74.9548 -81.8101  255 255 255
62.1325 43.5841 -29.1607  255 255 255
62.9797 43.775 -30.3229  255 255 255
65.2506 22.0452 6.42986  255 255 255
66.0044 37.8426 -27.8964  255 255 255
29.1989 70.6501 -89.5081  255 255 255
68.1779 33.731 -21.7373  255 255 255
65.1446 35.8557 -26.3735  255 255 255
88.5892 74.7331 -123.99  255 255 255
-16.7262 64.0774 -71.0323  255 255 255
63.9032 33.1866 -33.0456  255 255 255
67.9213 34.7138 -37.9221  255 255 255
76.7069 65.9938 -112.339  255 255 255
78.5309 65.3849 -111.453  255 255 255
54.8505 64.6775 -105.427  255 255 255
-25.104 59.6385 -69.5675  255 255 255
-2.72817 60.7771 -80.8822  255 255 255
14.1782 58.3951 -88.6428  255 255 255
72.358 6.73436 10.8236  255 255 255
71.3237 6.50159 10.0224  255 255 255
5.77303 12.0219 20.2615  255 255 255
76.2577 1.07477 20.2481  255 255 255
3.2652 1.53953 36.1939  255 255 255
-9.98123 5.55687 28.436  255 255 255
-13.884 6.26434 26.3399  255 255 255
83.3718 -13.7685 27.2507  255 255 255
-14.7873 2.77634 29.1645  255 255 255
-2.67749 -2.86653 38.2602  255 255 255
-3.85783 -2.52492 37.5352  255 255 255
-5.09322 -3.97517 38.0011  255 255 255
84.7834 -17.6558 31.3517  255 255 255
74.1636 -9.72488 8.20631  255 255 255
-20.9278 -1.57529 26.1834  255 255 255
73.1257 -12.7602 3.82496  255 255 255
-18.7123 -4.49919 29.7246  255 255 255
75.9034 -16.3166 8.35165  255 255 255
75.9034 -16.3166 8.35165  255 255 255
-2.30452 -11.5015 37.7703  255 255 255
-19.6029 -5.829 30.9162  255 255 255
-28.7976 4.65127 2.09676  255 255 255
85.7051 -27.2776 26.4822  255 255 255
-22.6991 -4.29887 23.846  255 255 255
-21.232 -6.69722 27.7847  255 255 255
84.9871 -28.4219 24.1083  255 255 255
2.55502 -17.9054 37.4888  255 255 255
-20.7288 -14.6597 33.3844  255 255 255
-11.5626 -18.36 38.0889  255 255 255
-8.89872 -19.3481 39.2735  255 255 255
-11.8124 -19.0863 38.8535  255 255 255
-98.3881 -24.36 120.351  255 255 255
-97.3271 -24.3035 119.158  255 255 255
-97.3271 -24.3035 119.158  255 255 255
-7.28935 -23.3353 40.4679  255 255 255
-38.0935 -12.1915 22.7672  255 255 255
-28.2398 -17.3898 30.9884  255 255 255
-35.4413 -10.4701 10.2764  255 255 255
-31.4699 -16.539 28.6021  255 255 255
-39.6603 2.9376 -41.6041  255 255 255
-42.4664 2.71105 -41.4076  255 255 255
-17.8015 -24.4459 39.2326  255 255 255
-13.5756 -26.5684 42.6825  255 255 255
-49.7431 -3.61341 -33.9095  255 255 255
0.427332 -37.0285 39.4409  255 255 255
-30.2069 -27.4394 29.4469  255 255 255
-12.947 -33.6624 37.7433  255 255 255
-30.4507 -28.1334 27.9407  255 255 255
-13.1991 -36.8836 35.7764  255 255 255
-6.0629 -39.3925 37.4611  255 255 255
-10.4057 -38.0901 36.9237  255 255 255
-32.4234 -29.3989 19.8059  255 255 255
20.3878 147.568 -62.4404  255 255 255
19.626 147.493 -65.233  255 255 255
-10.8695 116.398 -51.2182  255 255 255
-6.58787 114.879 -49.4565  255 255 255
-22.1359 111.435 -46.9163  255 255 255
1.25934 107.412 -52.0485  255 255 255
32.4101 112.133 -63.125  255 255 255
29.7835 111.948 -62.8598  255 255 255
61.4243 77.8494 -13.9172  255 255 255
-5.06988 100.369 -53.3986  255 255 255
61.138 72.2211 -18.6362  255 255 255
-62.8214 84.2142 -33.7925  255 255 255
-54.3833 83.9985 -37.2837  255 255 255
62.3085 48.0364 12.0021  255 255 255
15.9329 92.5447 -69.2894  255 255 255
69.5054 55.4031 -10.5135  255 255 255
65.9266 96.2906 -88.4814  255 255 255
20.034 86.2905 -75.054  255 255 255
-44.7033 75.6807 -47.8578  255 255 255
68.2702 46.705 -19.5095  255 255 255
60.3025 51.8498 -30.0142  255 255 255
60.3025 51.8498 -30.0142  255 255 255
61.8146 27.5042 9.12645  255 255 255
-32.4242 68.0619 -59.4126  255 255 255
74.0148 18.4095 17.735  255 255 255
81.6449 63.7011 -84.986  255 255 255
67.2471 34.8019 -22.8405  255 255 255
64.7581 19.6896 2.19737  255 255 255
61.9503 21.1194 -4.71906  255 255 255
65.2333 14.6134 0.584694  255 255 255
64.3166 14.8723 -2.03737  255 255 255
64.3843 14.8731 -2.18963  255 255 255
64.0248 14.7641 -1.72735  255 255 255
-4.43616 53.9965 -82.1648  255 255 255
71.6397 4.50283 8.47302  255 255 255
63.729 10.9428 -5.29005  255 255 255
63.2048 11.1365 -4.12361  255 255 255
-3.10317 54.1177 -88.3665  255 255 255
-4.43506 53.163 -85.1279  255 255 255
13.5006 52.7939 -92.6523  255 255 255
-4.06819 51.9446 -86.9416  255 255 255
-4.06819 51.9446 -86.9416  255 255 255
1.65717 53.6171 -94.3685  255 255 255
73.1432 -4.64983 8.18439  255 255 255
83.8657 -15.2393 30.4201  255 255 255
-21.2159 1.62593 21.7962  255 255 255
-2.44231 -8.62949 39.4485  255 255 255
-21.5932 -2.22107 25.082  255 255 255
85.3765 -27.3076 25.5524  255 255 255
2.07854 -15.1588 39.9388  255 255 255
-9.19469 -12.509 37.8821  255 255 255
85.538 -30.6112 25.0328  255 255 255
83.4653 -28.868 20.2842  255 255 255
-18.2344 -11.6235 31.5512  255 255 255
-31.4972 -3.68578 11.8377  255 255 255
-98.1058 -23.4333 121.457  255 255 255
-16.4371 -15.1993 33.9757  255 255 255
4.65352 -24.1435 41.1388  255 255 255
-34.7048 -7.27675 12.6526  255 255 255
84.1621 -36.4843 19.6654  255 255 255
83.9699 -37.1373 19.3841  255 255 255
82.7176 -38.0477 15.6094  255 255 255
-43.3666 4.49333 -43.9671  255 255 255
-29.558 -19.0628 32.9516  255 255 255
-11.5251 -26.2209 41.909  255 255 255
-23.2117 -25.7118 35.5195  255 255 255
-43.4203 -9.5647 -27.2988  255 255 255
-22.9442 -31.7681 31.0957  255 255 255
-22.9442 -31.7681 31.0957  255 255 255
-27.3764 -30.0804 27.2858  255 255 255
-21.9594 132.726 -53.2749  255 255 255
-19.808 129.96 -52.6517  255 255 255
3.61335 129.898 -51.9141  255 255 255
-51.0134 110.035 -30.7515  255 255 255
20.3761 125.995 -61.081  255 255 255
0.182444 117.279 -51.2486  255 255 255
0.182444 117.279 -51.2486  255 255 255
-6.91955 111.289 -48.194  255 255 255
-5.10871 106.991 -47.1951  255 255 255
-14.9839 99.1016 -46.5958  255 255 255
64.7122 69.6133 -12.628  255 255 255
0.766852 96.6374 -57.7884  255 255 255
-28.0485 79.4855 -54.7276  255 255 255
91.3163 91.0458 -107.195  255 255 255
12.2633 75.3861 -79.9363  255 255 255
60.806 44.1927 -33.4105  255 255 255
-6.11835 70.1211 -73.0859  255 255 255
62.0335 27.0651 0.216828  255 255 255
47.6653 67.9123 -111.755  255 255 255
64.7363 30.1108 -30.7665  255 255 255
45.5683 62.9265 -103.506  255 255 255
58.8007 16.0304 -10.8769  255 255 255
62.645 11.9208 -5.0297  255 255 255
78.267 -3.38574 21.6719  255 255 255
83.962 -11.4329 32.7815  255 255 255
64.2437 7.5351 -7.1583  255 255 255
83.8292 -13.3807 30.7092  255 255 255
-17.7416 3.83208 24.8393  255 255 255
-5.10181 -4.54642 37.4785  255 255 255
-5.50777 -5.73588 38.5152  255 255 255
83.1713 -18.1075 25.3735  255 255 255
-20.2918 0.0466073 25.6091  255 255 255
-10.1339 -6.65477 36.7626  255 255 255
-4.98074 -8.52838 39.1775  255 255 255
-16.6237 -5.28836 32.0694  255 255 255
2.11892 -13.8628 39.993  255 255 255
-20.0054 -6.74247 29.3908  255 255 255
-35.2489 -6.32684 16.8532  255 255 255
-97.8868 -23.9133 120.703  255 255 255
-35.4058 -9.18288 17.6774  255 255 255
84.5751 -37.6529 20.203  255 255 255
84.5751 -37.6529 20.203  255 255 255
-36.5063 7.07443 -46.1827  255 255 255
-31.9119 -14.9554 27.6333  255 255 255
-28.3363 -19.5668 33.696  255 255 255
-5.69696 -27.4785 42.763  255 255 255
-23.9476 -22.1203 36.5594  255 255 255
-9.22969 -33.6333 39.9659  255 255 255
-45.4531 -10.3018 -25.9205  255 255 255
-24.5919 -30.737 30.6435  255 255 255
3.28496 121.054 -54.8027  255 255 255
8.88195 119.695 -54.8242  255 255 255
-46.7197 91.17 -36.1117  255 255 255
66.8591 49.3483 20.5348  255 255 255
34.9591 104.007 -70.3731  255 255 255
64.2444 40.3566 27.7528  255 255 255
-9.27915 88.2822 -54.8938  255 255 255
60.4076 65.573 -23.458  255 255 255
67.5758 93.5759 -90.2832  255 255 255
56.4519 83.9885 -93.9818  255 255 255
68.5885 18.5253 11.5396  255 255 255
1.22183 59.6359 -84.6177  255 255 255
1.58841 58.5564 -88.1801  255 255 255
-8.02019 1.41972 33.1516  255 255 255
84.8857 -15.2506 32.6765  255 255 255
-10.531 0.885022 33.4951  255 255 255
0.329234 -2.94169 38.2936  255 255 255
64.444 2.82578 -5.99247  255 255 255
-11.5518 -1.22461 34.3138  255 255 255
-11.5205 -1.27273 33.9755  255 255 255
-18.7022 1.98712 25.6353  255 255 255
-22.7661 0.596473 17.6677  255 255 255
-21.8701 -3.65055 25.4372  255 255 255
2.35225 -16.5397 39.7364  255 255 255
-97.8346 -22.9748 121.658  255 255 255
-12.2942 -19.206 38.7351  255 255 255
-26.7828 -20.2582 33.9301  255 255 255
-21.778 -23.2461 38.0414  255 255 255
-21.0219 -23.7051 38.9214  255 255 255
-17.5384 -31.864 37.6882  255 255 255
-33.862 -24.0386 17.1565  255 255 255
-46.3465 -12.0478 -30.4154  255 255 255
-49.8347 -14.2737 -21.2419  255 255 255
26.5082 111.4 -62.8126  255 255 255
-4.75009 101.407 -52.065  255 255 255
-50.8334 90.4176 -34.5311  255 255 255
-63.3098 87.7481 -30.1729  255 255 255
94.116 98.8597 -102.42  255 255 255
75.2451 8.00745 17.4876  255 255 255
-15.8244 6.62157 23.251  255 255 255
-21.7799 2.02205 19.2907  255 255 255
-99.9283 -24.0417 122.538  255 255 255
-97.3544 -26.384 117.145  255 255 255
-34.0238 -24.0736 25.6598  255 255 255
-24.6535 -30.0185 31.2778  255 255 255
58.2747 44.0819 17.2423  255 255 255
35.8348 92.6005 -78.027  255 255 255
75.8283 82.3928 -101.708  255 255 255
-4.27871 74.0578 -69.6949  255 255 255
65.2346 70.9901 -106.39  255 255 255
13.1328 59.4299 -89.7619  255 255 255
15.0171 53.3358 -92.4613  255 255 255
-8.37948 -2.93097 36.7974  255 255 255
-18.2974 -25.425 41.0545  255 255 255
13.9925 111.221 -54.3343  255 255 255
60.4585 82.529 -94.8175  255 255 255
1.78251 -5.80271 39.8141  255 255 255
-18.041 -7.22021 31.4671  255 255 255
-99.866 -22.9694 124.117  255 255 255
-17.0589 -16.546 36.0194  255 255 255
84.4477 -35.1881 20.7043  255 255 255
2.47148 -33.0988 42.2247  255 255 255
2.54899 -33.1559 42.2196  255 255 255
-33.8656 -24.3849 17.2905  255 255 255
10.2699 107.192 -56.6963  255 255 255
-99.0003 -23.6622 121.815  255 255 255
39.085 84.9248 -84.4375  255 255 255
-17.303 -2.17925 30.4717  255 255 255
0.759727 98.0753 -57.3467  255 255 255
-44.4551 83.2524 -40.5577  255 255 255
25.1551 84.2336 -83.9959  255 255 255
-26.1424 94.1664 -49.8466  255 255 255
-109.057 20.3284 100.691  255 255 255
-103.269 -6.07052 99.6714  255 255 255
-161.395 68.26 -125.196  255 255 255
-159.854 69.0381 -126.683  255 255 255
-155.573 87.1116 -121.088  255 255 255
-144.262 122.711 -83.6822  255 255 255
-131.066 109.462 -70.4138  255 255 255
-130.895 67.6181 -93.6753  255 255 255
-130.009 121.142 -71.5999  255 255 255
-123.818 96.5459 -63.3446  255 255 255
-120.831 106.659 -51.4402  255 255 255
-120.699 102.638 -55.0692  255 255 255
-119.523 86.8939 -61.4793  255 255 255
-136.103 155.178 -90.4241  255 255 255
-115.262 48.8474 -74.321  255 255 255
-113.168 73.0638 -57.9576  255 255 255
-121.974 132.069 -72.8914  255 255 255
-123.651 136.048 -81.5742  255 255 255
-121.947 131.119 -78.5241  255 255 255
-119.977 130.411 -73.113  255 255 255
-122.474 139.894 -83.4127  255 255 255
-105.028 86.2189 -36.0615  255 255 255
-105.028 86.2189 -36.0615  255 255 255
-103.226 64.2002 -43.9637  255 255 255
-103.569 82.9858 -34.4659  255 255 255
-122.311 161.076 -93.3449  255 255 255
-98.2484 42.0148 -48.162  255 255 255
-97.1972 85.3369 -23.8588  255 255 255
-111.731 132.587 -66.3213  255 255 255
-119.791 142.75 -109.328  255 255 255
-94.091 61.7036 -24.9927  255 255 255
-110.073 131.746 -65.5725  255 255 255
-94.9203 46.1299 -43.8791  255 255 255
-110.525 135.717 -72.337  255 255 255
-94.0445 38.7888 -49.0836  255 255 255
-94.9339 79.5413 -28.7337  255 255 255
-94.2859 85.7716 -24.3608  255 255 255
-105.865 123.793 -57.0908  255 255 255
-92.094 34.0084 -51.2453  255 255 255
-94.8718 91.7297 -29.2314  255 255 255
-106.859 141.208 -61.7567  255 255 255
-91.8112 41.4108 -46.4352  255 255 255
-73.5254 -39.4686 -4.95023  255 255 255
-91.1303 29.5125 -56.1432  255 255 255
-105.649 145.659 -57.2798  255 255 255
-72.2412 -36.2003 0.66921  255 255 255
-105.722 137.232 -71.4797  255 255 255
-105.647 136.213 -72.278  255 255 255
-72.4671 -38.3861 -3.15042  255 255 255
-92.9106 93.0468 -25.1705  255 255 255
-103.944 134.189 -68.46  255 255 255
-104.605 141.993 -70.6734  255 255 255
-103.949 138.782 -63.9848  255 255 255
-89.3019 36.5925 -53.1447  255 255 255
-89.1003 30.336 -58.1537  255 255 255
-103.654 137.693 -72.6028  255 255 255
-88.0406 25.0032 -59.5431  255 255 255
-88.6066 58.3778 -41.9073  255 255 255
-102.402 141.954 -64.9304  255 255 255
-87.419 55.0636 -44.0619  255 255 255
-86.8641 41.9964 -50.7202  255 255 255
-87.6757 63.0848 -40.3132  255 255 255
-90.5307 102.376 -29.245  255 255 255
-91.9323 110.927 -35.5628  255 255 255
-86.4205 67.5552 -37.1708  255 255 255
-91.172 100.133 -38.8174  255 255 255
-85.9924 87.14 -26.1947  255 255 255
-84.0296 39.5878 -51.5345  255 255 255
-88.5786 105.77 -30.6269  255 255 255
-90.5188 115.523 -38.9435  255 255 255
-86.0118 90.838 -25.2771  255 255 255
-84.2036 72.8747 -28.1088  255 255 255
-84.6192 84.8937 -29.1067  255 255 255
-87.5115 109.494 -32.7228  255 255 255
-83.4707 84.4266 -24.6906  255 255 255
-75.9775 2.8427 -41.9615  255 255 255
-81.0535 79.3921 -16.5821  255 255 255
-83.5251 88.8609 -24.7087  255 255 255
